ply
format ascii 1.0
element vertex 1099
property float x
property float y
property float z
property uchar red
property uchar green
property uchar blue
end_header
370.071869 554.934387 172.213943 93 88 151
369.224823 551.885498 170.271759 96 95 162
454.085632 465.878479 169.909607 83 79 135
371.519226 550.848816 164.269012 73 67 108
450.380585 467.373383 161.771545 82 76 121
453.036591 467.203400 164.526764 71 65 111
373.523102 548.973206 159.652420 44 30 43
374.795166 545.737976 157.750046 45 32 45
380.547394 540.403931 156.038910 58 48 66
385.721588 535.818115 155.794540 59 49 69
390.754425 530.531128 155.360687 63 52 73
395.784424 525.501160 155.205551 62 50 67
401.075195 520.545715 155.720001 57 42 62
406.092621 515.649902 155.781357 53 41 56
410.874329 510.411133 155.427383 53 41 54
415.394073 505.511688 155.020096 55 42 59
420.096008 501.189545 155.278717 59 46 66
425.131927 496.040283 155.531540 54 40 52
429.937897 491.502686 156.063431 53 40 56
435.185974 486.099579 156.401657 52 40 56
440.319763 481.261597 156.545822 50 40 51
445.245941 476.319031 156.245468 53 39 59
450.674469 469.971893 157.789780 73 66 114
454.195160 469.605225 159.467728 81 66 112
437.218994 495.471924 629.889465 99 97 148
440.288116 491.067749 630.849609 106 106 162
444.977203 486.124542 631.734253 88 90 149
450.588837 481.315125 632.199524 94 98 161
455.455841 476.043304 632.742310 87 90 151
460.394012 471.048492 633.660095 66 61 115
465.693420 466.137695 633.321167 89 90 148
470.380798 461.025726 632.819336 77 73 121
475.004669 456.521057 631.486816 68 63 110
479.888306 451.335480 630.427063 82 79 132
482.551697 448.793823 629.715759 105 103 160
431.388062 500.456635 624.917297 69 58 87
433.791199 496.518250 628.157593 85 82 121
485.009033 446.290283 626.644409 97 96 152
487.572754 443.673126 622.967285 105 107 167
429.374908 501.699219 617.788635 71 61 85
490.337738 441.006989 619.644104 104 99 147
492.574677 438.727234 615.878113 78 68 99
429.260925 502.502930 611.799805 77 70 101
494.004364 437.358307 611.929688 102 100 158
429.214081 502.859680 605.215271 94 90 134
495.432953 435.981659 605.189392 119 121 192
429.178162 502.571289 597.166626 113 110 164
495.253265 435.911316 597.263306 87 78 123
429.227570 502.446869 590.666687 103 98 149
494.718231 436.663696 590.905396 103 96 144
429.843536 501.914642 584.086487 95 87 129
490.643890 438.291382 581.611145 98 91 136
492.789551 438.102203 584.190857 100 93 141
431.433289 499.712891 575.890503 98 90 134
430.851746 496.302124 573.234863 96 86 134
490.314209 440.606018 576.307434 100 92 138
494.707458 440.829681 580.152405 115 111 170
433.648224 500.285309 570.788391 90 83 126
432.898651 497.252747 568.834961 91 83 129
485.101166 442.678162 568.126709 121 100 145
488.701569 442.344818 569.805908 106 96 136
434.846741 496.589569 562.747253 89 85 132
485.296448 445.071442 561.814331 179 172 212
489.606567 444.414337 563.455200 107 97 142
436.451111 495.229980 555.999939 82 76 123
479.072388 449.146362 554.441101 154 146 204
485.836304 447.061279 556.689026 132 126 174
490.108673 446.336090 558.743713 70 61 105
433.788727 501.189484 545.431519 120 125 181
436.053894 495.482880 548.346558 177 178 222
474.439545 453.113800 548.118652 108 93 158
479.187500 451.196777 548.901550 90 75 137
485.101135 449.357208 548.788696 83 78 121
387.187317 544.824585 538.719666 96 103 173
391.136963 540.643311 539.819763 101 107 174
396.028687 535.793884 540.828430 103 107 161
400.569336 530.845215 541.802734 102 102 148
405.783905 525.980591 542.880554 110 110 158
410.812195 520.959534 543.439331 105 105 155
415.898254 515.888733 543.842529 89 87 128
419.655212 511.599304 543.964478 80 75 111
424.985901 505.944061 543.793579 82 83 136
430.192322 501.189087 544.461975 95 94 153
432.291656 496.565674 544.901855 140 143 192
474.759247 452.394623 544.926453 167 145 207
478.624908 449.893372 544.134155 212 212 245
484.729797 445.639893 543.222046 122 125 183
490.191925 441.968750 540.816345 86 79 115
495.347290 439.651306 540.549133 70 62 90
366.445648 561.194275 531.656372 91 99 148
371.265259 559.799133 532.464600 71 73 125
375.795593 554.946716 535.021545 89 94 155
380.723236 549.894958 536.889648 96 103 168
384.317596 547.071228 537.846313 97 104 171
485.095642 442.032074 533.565125 104 102 153
489.409637 440.889862 534.701904 97 93 139
495.759338 439.057739 534.677246 97 94 141
361.409302 565.756165 524.640198 90 85 127
366.206604 563.938904 527.305786 75 72 113
371.555634 563.028259 528.291138 75 73 116
485.071991 442.071259 527.896179 107 106 160
489.241760 440.729553 527.883789 112 112 166
495.940521 438.793091 527.913086 102 100 152
360.486023 568.023193 519.606995 109 105 159
368.171570 566.070618 521.170471 105 103 158
371.427704 564.739197 523.357788 102 99 150
484.931152 442.434784 520.202393 104 104 157
489.358765 440.942749 520.790222 111 112 167
495.912048 438.931519 520.872009 102 101 155
356.366577 570.874817 511.064178 97 96 151
360.175385 569.705811 513.157410 105 103 162
367.169739 568.352112 513.738403 105 103 164
484.734924 442.960754 513.559448 102 100 153
489.721252 441.333954 513.627319 104 103 158
495.848694 439.379852 513.775452 103 102 158
356.172211 572.075928 505.961487 100 97 151
361.877502 570.931274 506.621094 102 99 156
366.562622 569.636780 508.425476 103 101 160
484.591766 443.659882 506.196655 98 96 147
490.367981 441.999756 506.496826 96 93 142
495.560883 440.326172 507.188202 95 91 141
355.945007 573.277954 499.546692 98 93 143
362.019836 572.186096 499.915771 98 93 144
479.890350 447.294861 496.987061 110 110 162
484.237427 445.262878 499.350739 95 92 143
490.960571 443.313141 499.963654 85 81 128
495.162476 441.412506 502.495300 81 76 118
355.788330 574.029480 492.921814 91 83 127
361.862122 572.953918 492.964813 94 86 132
479.733459 449.989716 491.987091 116 111 161
485.409485 447.873047 493.455475 103 99 148
490.358795 445.417419 495.436279 90 84 135
355.433533 573.498962 487.664398 106 96 138
361.635986 571.225952 487.011566 105 94 130
366.467896 564.400513 484.942688 98 84 119
371.209229 559.791687 484.839844 102 93 133
376.169617 555.822205 484.586670 106 100 147
381.285065 551.974182 484.453033 103 96 148
385.810974 545.962830 483.831177 93 85 132
390.831177 540.702148 483.094452 70 63 111
393.688568 537.656921 482.374207 68 69 118
475.104797 452.907928 485.184509 153 158 208
480.252228 452.526459 486.151215 171 176 217
485.240265 451.218994 489.024750 178 177 211
395.607208 535.633850 479.140869 65 58 87
475.090179 452.974243 478.888855 98 98 150
480.220551 452.738983 478.598083 97 96 149
395.389893 536.099426 471.129669 78 71 100
475.141937 452.801575 471.423248 103 104 159
480.603546 452.340790 471.516663 101 101 156
394.663452 540.072815 463.908051 112 109 150
393.930023 536.549377 465.141663 89 84 124
475.011322 452.847412 464.716034 101 101 157
480.708252 452.110413 464.741394 102 101 157
485.258118 451.500244 465.050781 109 107 161
391.801727 538.810791 457.333740 121 126 183
392.307037 536.030396 460.151733 100 101 154
474.896973 453.327667 457.559113 90 86 137
480.555511 452.555939 457.995483 93 91 142
389.925964 540.935791 450.655609 105 108 173
474.738892 454.367462 450.575714 94 92 144
480.424255 453.571838 451.020172 86 84 133
391.154266 540.635071 443.566284 111 109 169
391.605103 535.745911 440.585175 99 96 149
474.832794 455.414825 443.543121 93 93 149
480.218353 454.832367 444.180389 88 86 139
393.870026 540.237183 438.651367 86 83 134
395.115784 535.834534 435.930878 90 87 138
396.364990 530.978882 433.425995 94 90 143
470.370300 457.145508 434.614685 104 106 172
475.184052 456.531311 436.598022 120 123 181
480.169189 456.046906 437.703918 134 139 194
398.572693 535.385071 431.775421 97 98 150
400.212433 531.019226 429.162659 89 86 133
401.669006 526.099060 426.698944 72 66 107
470.164490 457.944672 429.577698 132 136 192
475.672272 457.219849 429.754395 124 129 187
480.174316 456.476471 429.252838 98 99 162
403.764618 530.659790 425.374237 72 66 105
404.748627 526.687012 423.550415 66 59 99
406.523804 520.630066 419.971832 64 60 108
470.074677 458.737274 422.675385 81 76 120
476.008331 457.619446 422.948334 81 77 124
480.190033 456.492157 425.333862 89 85 138
408.085419 525.746094 414.998322 93 98 164
407.678925 520.831787 415.888580 95 100 162
460.157867 467.493958 413.283600 143 153 192
465.038483 465.216583 414.593750 92 84 120
470.443512 461.850616 416.841522 72 63 95
476.148132 459.230957 418.392151 76 72 117
403.498688 530.554138 406.273438 76 76 130
404.632202 525.916321 408.241028 77 77 135
406.802277 520.817017 411.645020 81 87 156
459.990814 468.774353 407.900635 100 99 152
466.160278 467.917053 407.815735 88 83 130
399.712402 535.671021 399.109222 96 98 165
400.579437 531.012268 401.862457 78 78 131
401.825592 525.957214 404.563690 76 74 128
460.109009 468.502838 401.758026 85 84 131
466.002625 467.633575 401.633698 84 83 132
397.089539 535.322205 394.183380 100 104 172
397.473175 531.214294 396.625946 92 94 157
459.879028 468.950256 394.357300 80 78 124
466.161743 467.667694 394.515839 89 89 140
394.260437 540.265503 385.986481 105 108 171
394.500183 536.384521 388.240387 104 107 174
459.577332 469.578491 387.563782 84 83 135
466.426025 467.680756 387.689178 84 84 134
391.934998 540.121521 380.853363 99 103 172
391.968903 535.868347 383.574036 90 92 154
455.337524 471.744354 377.614288 80 80 133
459.355042 470.215454 380.732635 83 82 133
466.617004 467.926880 380.971344 84 84 136
391.667267 540.279846 373.590790 87 83 139
391.728973 535.901123 370.624115 83 83 133
454.994324 472.513123 373.034027 80 78 131
459.742584 470.842133 373.827454 79 76 127
466.379272 468.659088 373.991211 77 75 125
394.393127 540.296631 369.137665 86 85 137
395.650848 535.662476 366.261932 86 85 135
396.753448 531.238708 363.387329 84 85 135
454.574371 473.397797 366.332336 78 76 128
460.111481 471.218292 366.622040 76 73 122
466.134277 469.153046 366.767090 75 73 119
399.518768 535.075073 362.510132 80 82 132
400.834137 530.656372 359.742523 79 80 129
403.099152 526.534668 356.605957 76 72 124
454.209106 474.552765 359.276550 77 75 124
461.003906 472.078979 359.480713 62 55 93
465.789154 470.136658 361.004181 63 58 93
406.663086 525.287842 353.606079 89 89 148
408.070099 520.761780 351.378113 107 112 171
454.805359 475.702942 353.452423 99 98 155
460.865021 473.766998 355.142944 88 81 118
409.659637 525.635864 344.343231 88 92 161
409.198578 520.796082 345.129120 93 99 169
454.773865 476.236572 346.142059 92 96 156
407.119446 525.598999 338.180573 98 102 170
407.785461 521.060669 340.409637 96 101 168
457.124176 474.581360 341.182556 85 88 152
458.620941 472.241791 336.916779 92 97 160
403.134216 530.415894 330.341644 98 100 169
404.009216 526.282166 332.744385 105 108 178
459.732056 471.338287 331.799072 75 80 145
399.781738 535.545532 322.041321 95 101 170
400.265167 531.085327 324.845673 94 97 164
401.178040 525.975830 327.932251 98 98 168
460.010132 470.892303 325.492310 75 80 141
397.254059 535.248230 317.328369 94 101 172
397.476166 531.157959 319.565796 92 95 166
459.697479 472.166687 317.599579 62 65 124
394.592438 540.357971 308.948730 93 99 165
394.855743 536.190002 311.271088 93 99 168
459.027832 475.953674 309.912231 51 54 111
458.197845 472.164154 310.919952 59 62 120
392.140137 540.197205 303.505463 92 96 162
392.508423 535.885742 305.932526 92 93 158
458.235809 475.808228 303.267822 56 58 115
457.139099 471.415527 303.445953 61 61 118
390.468689 545.586182 294.623779 97 104 179
390.151367 541.298645 296.911346 92 97 167
456.787537 474.625793 295.567596 56 58 112
456.381256 471.538177 298.008270 60 62 116
389.470245 545.309692 289.076294 118 127 196
388.704102 541.216553 289.875275 109 116 181
455.834778 474.782379 290.159424 55 55 108
387.840698 544.665894 282.410553 138 148 208
387.254639 540.948425 284.297455 102 107 177
455.139801 475.997681 282.726166 56 58 116
386.273346 545.490356 275.949341 127 136 203
454.580902 476.928436 276.252777 57 57 111
385.329132 550.279358 266.365936 120 127 204
384.716827 546.684937 269.014435 111 121 200
453.695679 477.828400 269.238037 44 38 80
383.451965 549.647644 261.059753 112 122 208
382.744537 546.287903 263.056946 113 123 209
454.141754 480.637421 261.549835 50 51 96
452.267365 477.328766 262.432739 58 51 96
381.499512 549.969788 254.679474 114 125 212
454.062531 480.520630 255.993622 72 76 139
452.430725 477.465607 254.356186 74 78 140
380.326172 551.419495 247.568649 111 120 203
454.110321 477.438385 247.681564 74 81 152
380.276642 555.409973 239.769073 111 119 200
379.243286 551.636414 240.905441 106 111 192
455.902588 475.703491 240.682724 73 78 145
379.251221 555.131348 233.537125 121 132 215
378.207764 551.253784 234.107330 105 109 187
457.728455 474.766266 234.347473 80 85 149
457.156555 472.651917 231.590454 92 98 168
378.180023 555.076782 226.381439 120 130 212
377.294800 550.986389 227.422913 102 108 190
458.709015 472.830872 226.572983 87 91 159
376.757080 555.182617 219.590332 114 123 207
376.423676 550.730164 222.896210 119 130 207
459.822723 471.886169 219.345047 74 75 140
375.372864 560.536377 210.534348 114 124 212
375.265991 556.144409 212.769516 115 126 209
460.736755 470.923218 212.327469 62 62 118
374.348785 560.222168 205.318451 113 122 206
373.653076 556.073914 206.062775 115 124 205
461.243835 470.193329 205.830536 58 52 104
373.093903 559.731873 198.679047 105 112 194
372.350677 555.916199 199.677826 107 115 197
461.675873 470.140808 199.184555 55 50 100
371.595184 558.956787 192.090729 98 105 186
371.470673 555.680603 195.040558 106 113 197
461.542694 470.228241 192.065964 57 56 104
371.378052 560.323730 184.627960 88 88 153
461.063873 470.835876 185.056870 64 63 113
372.002533 560.276978 177.666016 93 93 154
460.623871 471.083740 177.902130 63 60 110
373.007172 559.289978 170.820648 81 79 133
372.388702 556.313477 168.194321 88 89 146
460.175446 471.689667 170.519928 65 60 109
375.458435 560.148071 167.075150 64 63 111
374.755524 556.634888 164.827255 68 64 110
458.750641 472.535889 163.586670 61 51 85
377.555756 554.299988 159.425415 48 39 51
380.760468 550.660034 157.638199 60 48 69
385.724396 545.621033 156.741226 69 58 83
390.823853 540.349243 156.082413 65 54 77
395.784363 535.560791 155.934448 60 49 69
400.737915 530.516785 156.016495 57 44 61
405.496857 525.556458 156.424774 55 41 62
410.874359 520.471130 156.622803 53 40 55
415.857971 515.593018 155.837051 55 43 59
420.578186 510.834381 155.863892 55 42 62
425.045410 506.104950 156.037704 57 43 61
430.086334 500.932037 155.993652 54 40 58
435.185974 496.159546 156.328125 51 38 50
440.226440 491.228241 157.126450 52 39 50
445.008514 485.727051 157.471100 54 40 58
450.266113 481.108368 157.075821 51 38 51
456.615479 475.613464 158.152252 46 39 64
456.983917 472.684875 159.467697 63 56 87
442.091553 501.034882 630.282898 95 95 147
445.815399 496.755249 631.456360 96 98 153
451.069580 491.983154 632.144409 91 92 148
455.619171 487.311584 632.806885 88 89 148
460.403137 480.991974 633.588806 96 101 168
465.365875 476.039581 634.579346 91 95 164
470.395874 471.009583 634.362061 93 95 163
475.586639 465.719574 633.925659 88 89 148
480.028168 461.592224 632.454346 97 102 169
484.513855 456.860779 630.634949 109 109 175
485.485779 451.727905 629.479980 123 122 182
435.269409 506.441345 625.888062 72 65 99
437.917938 502.728851 628.962524 83 78 122
488.556427 455.364044 628.957092 107 100 151
489.906982 451.321716 626.633728 93 87 132
493.128998 448.522980 623.081360 90 84 128
434.272278 510.208221 618.778992 77 64 99
432.723450 507.518860 619.186279 77 66 93
495.601257 445.858429 619.246643 95 88 130
496.204285 442.433533 615.785645 85 80 115
433.759949 509.792053 610.896729 93 89 136
432.004211 506.865082 611.439026 84 78 118
498.782898 442.765076 611.911621 103 101 159
433.644562 510.073608 604.797119 83 77 117
431.763092 506.904144 605.301880 91 86 130
500.413757 440.893890 604.156677 94 89 143
432.606903 509.396362 596.593079 105 100 146
431.143890 506.363770 597.776367 114 109 164
500.716156 441.033783 597.589600 96 89 134
432.867096 509.645630 590.851440 113 108 160
431.175781 506.377777 590.192627 111 106 162
500.090332 441.480835 590.948486 107 100 150
433.928406 510.190765 584.633789 115 110 166
432.501404 507.075073 583.440552 103 95 146
498.861115 442.836945 583.524780 108 103 161
434.544769 507.017273 576.271912 102 95 145
496.929840 444.768127 575.702148 125 126 193
497.524658 443.724030 579.295959 117 117 182
436.431732 506.109467 569.804749 96 91 142
496.006256 445.123688 569.386353 121 115 172
437.959900 505.179718 563.806030 92 89 141
437.357697 501.653076 561.681091 88 83 133
493.748016 446.430878 562.125000 92 83 127
439.879395 505.717773 559.007935 98 97 160
439.333832 501.889832 556.056213 87 85 143
490.379181 448.134064 554.835266 67 58 93
492.822418 448.082916 557.251038 80 72 110
433.509338 511.668701 545.347351 81 81 127
436.233917 505.966431 546.155457 119 130 197
439.244934 501.841766 549.160767 133 134 193
490.503448 449.533722 549.070129 66 60 103
494.721680 447.466400 546.603821 85 81 138
499.171753 444.017181 545.803345 96 94 152
391.453461 549.385010 539.018311 107 116 195
396.179535 545.652588 540.536377 106 113 193
401.001160 540.771423 541.727722 101 108 178
405.581360 536.592346 542.651062 102 111 174
411.181030 530.161743 543.750793 100 103 162
415.826874 525.858521 544.279358 94 95 146
419.830139 520.407898 544.473145 88 86 126
425.679504 515.994629 544.654053 85 78 112
429.864868 511.204193 544.700195 82 78 122
432.378387 506.412201 544.903442 86 79 132
492.629517 445.024292 544.800476 111 116 185
499.969452 439.952148 542.192505 76 72 106
505.507965 438.018463 539.994629 81 73 101
509.732483 436.220490 538.762146 81 71 96
375.760223 561.453430 531.599731 50 47 83
380.862762 559.923157 533.403320 71 70 112
385.937683 555.939148 536.229492 82 87 143
388.430298 551.445313 537.853394 104 112 185
499.822815 438.129456 534.953247 98 94 141
504.941895 436.919922 534.784668 91 84 125
510.154724 435.532043 534.497314 84 77 111
375.735107 563.233643 526.989075 81 77 119
381.132782 562.628357 528.141052 84 77 117
499.914764 437.775177 527.935913 100 98 148
504.751801 436.662994 527.896667 97 94 140
510.216644 435.346252 527.918945 91 88 132
371.250458 566.519958 518.751343 102 101 153
375.616486 565.363525 519.872742 113 111 163
381.105042 564.536194 520.367126 139 137 183
499.849213 437.872589 520.607117 103 102 156
504.754700 436.730408 520.768250 102 101 153
510.167542 435.409332 520.787964 101 99 152
371.031128 567.912964 513.279053 103 101 161
377.030731 566.672668 513.902283 107 105 162
381.140289 565.340088 516.466431 150 147 192
499.716614 438.344330 513.347961 106 104 160
505.225220 437.068176 513.637085 104 102 158
510.057343 435.951294 514.244446 101 99 154
366.409027 570.710632 503.483307 101 97 150
370.720795 569.281433 506.387207 103 100 157
376.859070 568.025574 506.864594 102 99 156
499.446503 439.434113 506.213013 92 89 136
505.768829 437.948181 506.712921 93 90 138
509.844025 436.666534 509.407318 94 93 144
366.204712 571.469299 499.156342 97 92 141
371.289032 570.254272 499.749634 98 92 142
376.623505 569.132996 500.240540 96 91 139
494.751038 443.080231 497.810791 79 72 112
499.685211 441.127594 499.503479 75 67 105
505.439697 439.555237 500.397461 91 84 130
366.161591 572.230347 492.811035 96 89 134
371.770874 570.908264 493.375580 98 91 136
376.520416 569.765808 493.324799 101 92 140
488.786072 449.637482 490.528595 131 121 164
494.514801 446.512146 493.269226 105 91 125
501.416718 443.029083 495.185120 91 77 116
505.139130 441.460175 496.172211 188 181 225
365.846405 571.971008 488.523224 96 86 129
370.749847 569.168457 487.719330 86 73 110
376.368988 564.312256 487.200684 100 91 133
380.946747 560.397644 486.940460 108 104 152
386.145508 555.602295 486.502625 103 102 153
390.861359 551.489319 485.591339 111 109 159
396.005127 545.641174 483.847107 93 86 129
397.041809 541.010193 482.285645 85 78 110
485.069946 452.834167 484.617310 158 163 208
489.187653 452.391632 485.898102 170 172 216
495.057526 450.687744 488.982910 192 183 204
399.593994 542.258362 477.786682 72 63 87
485.101898 452.729095 478.932617 96 94 152
490.405884 452.425018 478.521759 98 96 151
398.641357 544.186523 470.666840 65 56 81
398.552246 542.002625 473.132233 51 41 65
485.122131 452.192169 473.274963 91 91 141
489.941132 451.550812 471.600433 103 103 158
495.154755 450.986633 470.713318 99 100 155
396.604401 544.510498 464.865875 96 92 135
489.788788 451.097656 464.687225 103 101 157
495.175049 450.668732 464.878662 100 99 152
394.695770 549.643799 454.973358 99 99 164
394.574646 546.341919 457.975983 134 138 198
485.077423 452.346405 456.411194 96 96 151
490.147827 451.839142 457.930328 108 108 167
495.121704 451.175659 459.959717 112 110 165
393.339539 549.660156 450.510468 113 117 185
391.824768 545.971619 451.683563 112 117 184
485.053101 453.378845 450.264069 90 89 142
490.332001 452.970886 451.001648 100 100 159
393.452484 549.600342 444.853180 106 104 162
393.161926 546.278809 442.199310 105 103 157
484.893433 454.742371 443.494446 109 111 171
490.363586 454.191406 444.027191 131 135 192
396.052551 545.132996 437.341461 99 97 149
397.521515 541.053833 434.190125 94 91 143
484.606384 455.497070 436.738953 135 141 196
490.556580 454.429657 436.464844 112 115 172
399.976044 545.621033 433.143402 92 90 141
401.611877 539.683105 429.425903 89 87 135
402.857391 536.363403 427.259033 83 81 125
484.656128 455.515869 429.371979 98 98 156
490.483734 454.409607 429.851624 100 100 155
405.018555 540.379028 426.223053 83 76 123
405.928101 535.625366 424.106781 78 74 117
407.395020 531.158020 421.449158 79 75 119
479.940338 457.507141 420.515167 80 76 125
484.716248 456.186859 422.682404 86 83 133
490.254608 455.169250 423.605560 88 86 135
409.298737 535.272156 414.984283 93 99 166
408.797607 531.368164 415.412323 91 95 158
474.653351 463.821411 413.876587 92 88 118
480.262756 460.759521 415.662537 93 89 130
485.056427 458.286072 417.813568 78 73 117
404.760712 540.862671 406.107452 100 106 173
405.654602 536.213196 408.371307 84 85 145
407.374664 531.111145 411.526031 82 83 147
470.232849 467.300598 407.651031 90 86 139
474.369965 466.177948 408.037781 95 96 152
480.960449 464.433685 408.124176 93 92 150
401.914795 540.578247 401.220245 98 101 168
402.709656 536.274292 403.742157 80 80 135
470.324188 466.835083 402.418304 84 82 133
474.670441 465.765869 401.637390 89 89 145
480.779572 464.404938 401.581512 95 95 151
399.074951 545.266541 393.236206 106 111 178
399.090759 541.369690 395.312927 101 105 171
470.388123 466.790833 393.981476 93 93 146
474.765778 465.768066 394.536774 90 89 142
480.816559 464.421539 394.581818 91 90 145
396.343140 545.609375 387.634369 111 116 181
396.737030 540.913635 390.349640 119 125 192
470.331573 466.733887 389.667694 90 90 143
474.590210 465.817505 387.662903 85 84 133
480.659729 464.669861 387.735809 84 84 135
394.371674 550.250916 380.135956 106 113 187
393.752472 546.388367 381.542297 101 106 173
470.356934 466.799591 378.498199 81 77 128
474.577820 465.755829 380.889435 86 84 136
480.654694 464.758362 380.893158 92 92 146
394.032654 550.181824 374.638428 94 93 155
393.814331 546.399780 372.763611 85 82 136
470.088928 467.429260 373.262787 84 81 134
475.063019 466.002014 373.811310 95 96 155
480.687561 464.801697 373.866760 99 102 163
397.139069 544.987610 367.757935 92 92 148
399.042603 541.215271 364.641510 86 85 140
469.947723 467.983917 366.317841 83 83 130
475.404480 466.445679 366.573822 81 80 130
480.620758 465.130737 366.936646 84 79 132
402.247375 540.061584 361.397308 79 78 128
405.187775 535.817261 358.092468 77 76 125
465.232513 472.032928 356.502777 74 66 106
469.634186 469.676392 359.501221 67 62 105
476.105011 467.813568 360.289398 75 73 123
480.382843 466.080261 362.379730 76 72 122
408.739868 535.018494 355.094513 78 68 117
409.587311 531.341125 352.504211 91 90 151
461.371490 478.482178 350.433472 42 36 79
465.250763 476.038940 352.805511 51 46 83
471.011627 472.805695 354.358124 53 55 107
475.311829 470.553528 355.329712 52 53 99
410.975983 530.833435 344.669891 92 97 165
461.054169 480.594452 346.246277 65 66 119
408.747040 535.271423 337.063232 109 114 188
409.106354 531.663208 339.570190 98 103 174
461.748352 479.772003 339.213959 77 87 159
461.124695 476.647858 336.514221 72 78 151
405.439514 540.838989 328.526001 96 99 168
405.657471 535.950500 331.684967 103 106 179
406.237946 530.942871 334.951660 117 119 191
462.562317 480.158539 331.994019 68 74 146
461.455139 476.440063 332.124298 69 74 141
402.493256 539.957397 323.951660 97 102 170
402.770813 536.622437 326.672974 103 108 177
462.436707 480.587616 324.657318 67 71 145
461.545410 476.464172 324.856018 53 54 116
399.403900 544.773010 315.688293 85 87 148
399.716949 541.476990 318.308197 90 94 161
461.639984 480.188782 317.545441 64 71 136
461.086731 476.320099 319.176025 55 56 115
396.780731 545.103699 310.705383 94 99 167
396.957703 540.904297 313.647614 97 105 175
460.634399 480.758087 310.685303 56 60 119
394.033203 550.006653 302.097595 103 112 182
394.148865 546.570007 304.583221 99 107 175
459.742126 481.672913 303.479370 53 56 114
392.004822 549.931763 296.619843 103 110 184
391.761047 545.866821 299.398010 98 104 173
459.201782 482.349365 296.500092 54 53 109
390.855225 550.937805 289.606842 102 110 186
458.954285 482.543091 289.357941 51 49 98
390.472992 555.546936 281.086212 113 122 198
389.892151 551.519714 282.934753 127 138 204
459.652222 486.157471 281.934052 55 54 99
458.227386 482.362549 282.759766 48 45 96
389.292694 555.165344 275.362305 129 140 219
388.451843 551.350464 276.414795 145 159 215
458.912964 485.534912 275.772430 39 34 80
457.407715 482.244141 276.352295 44 39 87
387.673370 554.529114 268.632690 161 175 229
386.984741 550.977722 271.193909 152 160 216
457.271088 484.521667 268.803955 40 34 80
456.081604 481.551208 271.208557 52 45 87
386.367004 555.440308 262.284882 152 166 228
456.595551 484.807495 261.932343 44 37 87
384.795654 559.993103 252.430756 153 164 221
383.884216 556.524902 254.447800 130 139 209
456.746277 484.544556 254.759262 74 73 131
383.152283 559.467529 247.171371 130 138 208
382.205719 556.093140 249.137436 111 117 197
457.912811 484.355194 250.391830 65 61 121
458.125763 482.901886 246.824295 63 60 116
381.884064 559.928833 240.682968 115 125 207
459.402710 481.699249 240.640228 56 52 104
380.858093 560.861572 233.828888 105 114 199
460.852386 480.506287 233.602142 57 55 106
380.370575 565.251465 224.747086 82 85 152
379.673370 561.470032 227.064804 101 108 191
462.028809 480.168671 226.724457 53 50 98
460.988861 476.426941 225.182663 50 46 102
378.854675 564.771301 219.053696 88 91 164
377.986115 560.966248 220.133896 103 111 197
462.822479 480.657684 219.627884 50 50 102
461.941711 476.693420 218.998932 55 50 104
376.952393 564.324036 212.634842 100 107 188
376.684418 560.826660 215.399643 105 115 201
464.151184 480.943359 212.688583 56 56 104
463.168762 477.138947 212.291519 56 56 109
376.024567 565.426636 205.645615 101 108 192
464.428253 481.043579 205.839584 39 36 83
463.413818 476.987793 205.600250 57 53 104
375.531433 566.505615 199.481293 92 97 175
464.008087 480.450592 200.116119 50 47 95
463.120300 475.675171 199.529739 43 38 79
374.438568 567.147095 192.203705 87 88 155
464.263123 480.805115 192.663956 46 41 83
463.403320 475.904297 192.189682 43 39 82
374.863190 567.154663 184.102676 93 90 148
463.959900 480.300812 184.562485 47 41 81
463.183746 476.399750 184.843475 42 36 79
375.465912 566.215759 177.442734 94 93 154
464.172668 481.017365 177.844208 59 54 97
463.445099 477.314087 177.766937 53 44 89
376.766235 565.067078 170.570770 81 79 130
463.785370 480.518433 171.117905 52 49 85
462.792572 476.876953 170.926285 50 46 83
378.440521 564.513184 165.846313 74 67 106
378.578766 561.740601 162.687119 67 58 97
462.315063 479.878448 162.771515 51 41 74
461.562653 476.734039 164.967499 51 43 81
381.315094 560.200378 158.721313 54 39 63
385.724426 555.681030 157.410446 66 55 79
390.503571 550.421204 157.177521 68 56 82
395.734711 545.983643 156.815979 67 56 80
400.814392 540.591064 156.695618 60 48 66
405.863434 535.482971 157.065460 58 41 58
410.732849 530.643127 157.045624 55 41 58
415.904327 525.501099 156.738144 61 48 68
421.167725 520.640076 156.684448 60 49 67
425.789459 515.885498 156.700134 60 48 66
430.009644 511.182770 157.180084 54 42 60
435.443115 506.442535 156.959915 53 39 56
440.368927 501.202271 157.120636 51 35 52
445.240051 496.549927 158.005692 51 37 50
450.180145 491.105591 158.065125 52 38 55
455.603119 486.169006 158.114777 51 36 49
460.257446 479.926636 158.915619 31 23 47
443.569244 510.411102 629.498657 81 75 114
446.231201 506.018738 630.681885 92 92 148
450.550720 501.398071 631.494690 97 100 162
455.573181 496.329956 632.152527 96 97 155
460.199951 491.785522 632.935425 98 101 163
465.107941 486.170837 633.999390 100 103 173
470.378723 481.064270 634.894165 104 108 184
475.022644 475.702606 635.027710 99 106 178
480.260193 471.212128 634.642700 99 101 167
485.105530 466.312256 633.411926 103 100 163
489.967529 461.860229 631.250916 101 94 140
494.288300 460.530426 629.444092 88 79 115
438.214935 514.088806 623.424438 77 71 109
439.848236 511.311707 626.978027 80 78 123
441.054291 506.219513 629.206360 86 84 129
490.256958 457.016724 628.957092 98 89 134
494.997620 456.475739 626.719604 90 83 126
498.346558 454.049866 622.908752 94 87 134
437.455872 514.063171 618.643433 102 96 145
500.982666 451.949005 618.347290 91 85 127
436.773499 514.514587 611.805725 111 107 155
503.169495 450.603760 614.384399 95 89 133
503.402435 447.912079 611.202881 84 76 118
436.169952 514.673828 604.644653 81 74 112
504.945709 446.445801 604.705627 73 63 98
436.181000 515.449646 596.609375 108 103 152
505.040802 447.025635 597.003723 90 80 118
436.309235 515.617432 590.655945 105 99 149
504.194244 447.821350 590.647827 105 98 144
436.830322 515.171814 583.714233 112 106 158
503.294800 451.330841 581.960815 99 94 143
502.706970 448.300964 584.675293 105 99 148
438.124390 515.602295 577.546692 106 101 153
437.146942 511.857239 574.657227 102 98 152
501.707703 450.584198 576.334961 105 100 152
439.920502 515.736511 572.049316 97 96 147
438.944427 512.128845 569.623657 97 94 150
501.146118 451.474304 568.985840 115 107 157
440.477112 510.619751 562.673279 94 93 149
500.333405 452.138306 563.540771 99 94 139
442.455719 509.940521 556.484375 100 102 170
441.834412 506.786011 554.321838 115 119 194
498.900604 453.747162 555.827454 65 60 103
422.389191 531.810303 545.396423 85 90 151
426.802612 526.448792 545.424927 83 88 142
431.249451 521.345947 545.510376 77 79 125
435.379883 516.278870 545.887268 76 79 127
440.901093 511.025757 547.947998 125 132 196
442.349609 507.095123 550.703796 165 164 204
499.347717 451.930756 548.635254 84 79 123
504.816437 447.027710 546.143127 85 85 135
510.967133 443.718842 545.700928 88 88 134
515.246582 440.410492 545.466858 97 96 147
396.492950 554.157043 538.954834 95 102 170
400.814636 549.841675 540.754456 93 102 174
405.109039 545.311951 541.960938 95 104 177
410.083282 540.595642 543.017334 92 102 172
416.499695 534.814697 544.467529 86 90 154
419.287140 531.113831 544.885803 92 96 155
424.481049 523.824402 545.115295 90 90 141
428.359558 519.393250 545.142273 82 78 118
505.114960 443.383240 544.853271 93 96 157
509.187592 440.265503 544.103821 94 97 142
514.860474 436.778778 541.995300 91 84 118
519.856079 435.193359 539.832520 89 79 111
390.104919 559.461853 533.282837 73 69 107
395.647400 557.579651 535.958069 95 95 150
514.443604 434.715454 534.485168 85 79 114
520.274780 433.904419 534.322510 89 83 122
385.786316 562.224976 527.732544 83 75 118
391.137848 561.102051 528.065308 91 87 134
396.041473 559.876770 529.780579 90 85 133
514.415894 434.423920 527.862976 94 91 136
520.586304 433.236786 527.835754 94 90 134
385.418213 564.031555 519.780457 127 125 175
391.857971 562.814087 520.817261 117 116 168
514.376282 434.538025 520.683960 101 99 152
520.562927 433.332397 520.829102 103 100 152
381.016174 566.448547 511.736298 99 97 152
385.660553 565.135376 513.498474 102 98 152
391.395599 564.019165 514.045105 102 97 151
514.248962 435.283844 513.482422 104 102 158
520.280212 434.249451 513.906433 112 108 164
380.836334 567.405396 506.165222 99 96 151
386.640106 566.209473 506.567261 101 99 154
391.242157 564.976318 508.388794 107 105 161
509.736389 437.740082 504.645569 83 77 123
514.106934 436.582306 506.665466 97 90 140
520.444580 435.079956 508.237549 145 139 183
380.647614 568.564941 499.519348 94 88 134
386.753540 567.343872 499.966034 96 91 138
509.460358 439.443176 499.067871 134 133 182
514.308716 438.340027 500.024139 151 149 191
380.309723 569.193115 493.592621 102 93 139
386.986603 567.486023 493.404816 87 79 119
391.431641 564.143921 489.870911 82 73 113
499.729919 449.136841 490.459045 132 111 133
504.830475 445.612000 492.208954 142 130 164
509.459656 441.802643 494.446198 160 164 213
514.538208 440.074280 495.427704 155 161 218
380.754120 566.388123 489.100708 94 85 127
385.122681 564.088318 488.835205 102 92 132
390.658783 559.723877 488.286011 99 96 139
395.108612 555.413147 487.278748 102 98 143
400.940613 550.542664 485.070251 121 114 161
405.011932 549.067993 483.041504 133 126 173
494.904053 452.745117 483.992126 127 128 190
500.085083 452.268341 485.843170 135 134 181
505.111420 450.720673 489.029297 161 148 175
403.923584 547.489380 478.792480 74 67 96
495.063416 452.440125 480.178955 96 94 150
500.136688 452.040222 478.582275 94 92 143
505.149017 451.370575 475.835144 104 102 158
402.549194 548.956116 471.575104 78 70 102
401.597473 546.235168 474.634186 56 48 68
499.950256 450.896515 471.751160 101 101 156
505.103607 450.678619 471.049408 102 101 155
401.070160 550.497559 464.551819 121 116 157
499.868347 450.422546 464.702087 97 95 147
505.113586 450.199493 464.768829 95 94 143
396.849579 552.100830 454.887543 87 82 132
399.932465 552.295715 457.912018 87 85 133
495.088409 452.070740 454.717468 104 105 165
499.851593 451.200714 457.789917 104 104 161
505.168213 450.712463 458.690308 105 106 160
398.246094 554.131104 450.138947 75 67 110
401.060669 554.619629 451.452362 79 74 114
495.032928 452.820923 450.096161 116 118 179
500.309906 452.113739 450.925903 109 111 171
505.077271 451.435242 451.556763 110 112 171
397.864960 554.052673 444.342529 76 75 119
400.444611 554.933044 442.475372 78 74 118
494.767822 453.623779 443.529633 121 126 183
500.891083 452.393707 443.736328 108 109 167
504.876923 451.618530 446.674286 109 111 170
400.238068 551.444763 436.610138 88 87 139
494.788361 453.668671 436.696533 96 96 152
500.820526 452.551025 436.589172 99 99 154
403.124023 549.492676 431.640381 90 91 145
404.747894 546.305786 428.702362 85 83 134
494.859406 453.753387 429.550201 96 95 151
500.541779 452.969086 429.780396 99 99 154
407.812164 544.604126 425.238708 86 83 135
409.505371 541.479675 421.922150 103 104 160
494.869415 455.169189 422.401154 92 91 140
500.281860 454.362762 423.655487 92 90 141
410.035950 545.621033 412.395660 120 126 196
410.574982 540.948120 415.810333 100 107 169
484.652252 462.524170 413.110840 124 126 168
489.475250 460.294281 415.109222 99 95 136
494.420044 457.645782 417.398834 90 87 133
499.724884 456.061035 419.109558 82 78 126
406.977234 545.568542 408.139587 100 106 177
407.937714 541.502686 410.700653 89 91 159
484.639343 463.959747 407.776428 95 96 155
490.572296 463.178009 408.459503 93 94 150
403.624268 549.984436 400.433533 108 118 196
403.914551 546.307678 402.757446 104 111 185
484.800598 463.823181 401.804840 90 89 143
490.736176 462.895782 401.620422 91 90 144
400.458191 555.484131 391.639496 112 121 193
400.699188 550.436401 394.496796 110 118 189
401.286926 545.986816 397.769135 106 111 179
484.825806 463.702942 394.447540 92 90 145
490.833557 462.723053 394.439789 96 96 155
398.039063 554.989563 387.144257 113 122 198
398.080383 551.050049 389.042725 115 122 190
484.643341 463.874939 387.709015 91 90 149
490.937225 462.603424 387.693909 98 101 166
395.758667 555.678711 380.835358 115 123 203
484.605682 463.941284 380.883514 90 89 144
490.925720 462.492615 380.888000 92 92 150
395.876587 555.792847 374.124359 94 93 152
396.564789 550.632690 370.469452 99 97 153
484.471283 464.037781 373.731110 95 97 156
490.871033 462.480652 373.761627 90 89 142
495.098755 461.490936 373.168365 84 82 132
399.150452 555.108582 369.135101 92 95 154
400.550446 550.520813 366.252472 92 95 153
401.485046 545.570557 363.387329 83 83 140
484.537384 464.430725 366.319672 80 74 124
490.877777 462.786285 367.341370 77 70 116
404.239685 550.018738 362.367950 90 94 153
405.756439 545.681641 359.453033 80 81 133
408.013947 540.855591 356.714081 80 80 128
480.158630 467.949646 357.642639 71 71 123
484.161469 466.221191 359.843170 78 79 132
490.547424 464.296082 360.083038 74 67 111
410.035980 545.621033 355.860718 105 101 150
411.607452 540.557861 353.367981 98 102 160
412.243500 536.140076 351.126892 108 115 184
470.052795 479.681366 350.256592 27 26 61
475.389221 475.743103 351.399689 50 52 98
480.683533 471.076477 353.826874 55 60 109
485.300171 468.846069 355.064362 61 67 121
413.449005 540.104919 344.253723 103 110 189
412.698242 536.363831 345.375336 97 105 181
466.060822 485.244568 346.420380 34 34 77
470.628754 482.806335 349.004883 25 23 55
411.112854 540.721741 338.739197 102 107 179
411.353760 536.074829 341.793549 104 111 185
465.843414 485.594727 339.271362 87 95 157
408.193756 544.795349 330.286835 98 99 164
408.637177 542.060669 333.116821 95 98 163
466.017426 485.408875 331.584290 108 120 191
405.727081 550.600830 321.388428 94 99 167
405.641083 546.173828 324.631653 90 92 156
465.542023 485.999268 325.190155 124 134 207
402.731171 549.657471 317.162567 90 93 155
403.032562 546.587463 319.939148 90 92 153
464.757935 486.566803 317.922516 107 116 194
399.908691 555.078857 308.077515 95 97 160
399.961639 551.578369 311.105286 90 92 153
464.239594 487.397247 310.804688 99 105 177
397.065887 554.948059 303.678558 97 102 170
397.146851 551.145142 306.747375 89 93 158
463.966736 490.013702 300.551636 119 113 189
463.144653 487.882965 303.723541 66 70 136
395.284454 560.349121 294.041687 96 104 175
394.673645 556.826965 296.948059 100 106 177
462.995331 489.643982 296.317291 65 64 134
461.129761 486.702911 296.994904 64 67 124
393.551575 559.725952 289.138916 97 105 180
392.540710 556.197571 290.442902 97 103 177
462.172272 489.586365 289.038330 48 46 109
460.795715 486.477966 290.474213 65 66 117
392.083008 559.703186 282.759399 102 110 189
391.427673 555.846008 285.731903 95 98 177
461.445770 490.062805 282.761780 51 51 107
391.026978 560.754517 275.914825 116 126 211
461.038086 490.275299 276.184143 49 46 93
389.965546 565.135864 266.200897 120 123 201
389.578583 560.966919 268.885468 122 133 219
460.651978 490.898376 269.229248 49 43 87
388.653076 564.529419 261.436035 107 111 196
388.209351 561.091919 262.342590 138 147 227
460.557281 491.067749 262.000427 66 64 110
386.998779 564.683228 254.834045 121 131 212
386.726563 560.868652 257.750061 164 175 238
461.585815 490.309540 254.843475 79 79 137
385.595062 565.672791 246.543869 133 144 217
462.956940 489.631439 249.265259 58 53 106
462.760925 487.896820 246.316513 61 59 106
384.920349 566.882141 240.708878 127 139 215
463.803711 487.927307 240.489334 63 59 104
384.840210 569.717773 232.441116 112 118 184
383.581757 566.973083 234.462189 112 120 185
464.611267 486.997955 233.562958 53 50 90
383.153412 568.838440 226.564117 92 96 169
381.846863 565.996338 229.478714 75 76 142
465.072998 486.672607 226.429016 46 43 84
382.042725 569.740479 219.642075 85 87 158
464.810059 486.671692 219.335358 46 40 83
380.848999 570.900269 212.658127 89 92 162
465.365082 486.130280 212.239059 49 45 89
380.102142 571.819885 205.533615 91 92 161
465.495819 486.149231 205.714828 40 35 73
379.348083 572.411682 198.872116 100 104 180
465.254883 486.101929 200.370163 42 39 81
381.069366 575.346375 190.912277 97 97 164
378.841492 572.771790 191.844452 99 99 174
465.398560 486.106232 192.663925 41 32 70
379.204010 572.615784 184.946091 89 83 142
465.234650 486.113525 185.550400 42 33 69
379.402863 571.458496 177.507324 87 84 142
465.138733 486.158539 177.762375 46 41 81
380.140106 570.290894 170.611542 89 92 156
465.154205 486.612885 171.349274 45 38 69
381.440521 569.123779 164.508926 89 88 147
381.532745 565.741028 160.421494 52 44 80
464.816681 486.793488 164.292374 41 30 57
384.846466 570.251648 159.843597 84 78 108
385.537079 565.625305 158.917374 61 50 78
390.841705 560.763855 158.236343 65 52 73
395.863708 555.995117 157.820267 64 52 75
400.812653 550.443848 157.200760 61 50 73
405.977325 545.705811 157.069244 59 46 65
410.582153 540.647034 157.164337 55 42 54
416.042572 535.557373 157.090881 55 44 57
421.025116 530.617004 157.067245 55 45 59
425.635742 525.395386 157.312943 63 51 71
430.135010 520.641479 157.333725 62 50 67
435.567810 516.310303 157.960022 57 42 63
440.537720 511.478821 157.900406 56 43 64
445.154785 506.216827 158.256317 59 39 58
450.330109 501.251831 158.241791 51 38 49
455.427246 496.167572 157.795029 52 38 53
460.052307 490.094116 158.765366 43 29 44
462.911682 486.094910 159.482910 27 18 39
447.259033 514.389893 630.049683 76 75 119
450.216309 510.961121 631.200012 85 86 140
454.868073 505.191895 631.927490 91 93 155
460.524872 500.722565 632.456055 94 95 156
465.068695 496.804535 633.183533 91 94 156
470.395844 491.129517 634.192017 113 118 188
475.264038 485.897247 634.716614 134 141 211
480.420319 481.295807 634.973328 94 98 166
485.471741 476.058624 634.876038 89 90 154
490.425232 471.687866 634.624023 96 94 156
494.859955 466.481384 632.726196 100 95 141
497.851807 464.110138 630.103638 106 100 149
442.530090 519.218323 624.084778 89 83 126
444.388519 516.858032 627.493835 80 77 119
500.878113 460.981476 624.942566 98 92 142
500.565643 456.875732 622.405518 97 90 137
441.897339 519.586426 618.803955 113 103 155
502.763275 459.922882 621.907166 96 90 139
503.799042 456.675690 618.461304 94 88 132
441.278046 520.811768 611.313354 113 108 149
506.504395 454.774200 613.676208 97 90 133
507.548462 453.041138 610.165039 86 79 120
440.790955 521.333374 604.753357 92 84 129
509.344818 453.232758 604.276550 74 64 97
440.453278 521.506592 597.878296 107 102 157
509.580811 456.561035 595.014160 96 90 135
508.609192 453.358795 597.193481 90 83 123
439.892242 521.679993 590.612183 98 95 146
507.804413 455.631653 589.920715 91 83 124
506.901947 452.588776 591.875488 101 93 135
440.332794 521.393250 583.595093 96 92 139
506.072113 455.703247 583.674866 93 86 130
441.012299 520.501831 576.950073 98 93 142
505.243866 456.583527 576.611511 97 91 138
443.468323 520.273682 569.318054 95 90 141
441.769775 516.877380 568.238953 99 97 153
504.944244 457.047302 569.690430 99 94 142
445.039795 520.842102 565.764343 97 94 147
443.937927 517.676636 562.979004 96 95 152
504.387329 457.435852 563.974731 89 88 136
445.373596 515.991821 555.986450 88 88 148
503.576996 461.073486 554.274536 81 67 104
502.545258 458.014832 556.472717 57 50 90
423.470184 539.705627 545.395935 99 108 177
425.619263 536.135437 545.933350 94 100 162
430.993927 530.518250 545.961792 78 85 139
435.785980 525.818970 545.923828 68 73 120
440.488373 521.099487 546.987671 90 94 151
444.796021 516.354614 549.657532 121 126 189
503.605865 461.085449 551.505371 97 88 132
504.076508 457.194763 548.935547 73 67 111
509.554199 451.482086 547.361572 66 60 96
514.809143 446.637054 546.763489 78 75 112
519.817444 442.370361 545.909363 96 95 144
525.078796 441.098114 545.412354 96 95 157
405.467499 553.973816 539.454590 91 93 149
411.040558 550.943237 540.635864 96 101 167
415.978546 545.576172 542.852722 108 119 195
420.836090 540.811340 544.684448 100 109 180
520.182678 438.613373 544.557556 103 99 145
524.846924 436.986420 542.529663 120 117 163
530.004578 434.682495 540.163391 125 124 174
400.481689 558.009216 534.146240 96 90 142
407.499542 556.399902 534.294189 90 90 141
411.088165 555.124878 536.658813 51 47 88
524.668335 433.649597 535.235413 90 84 123
529.663269 432.747192 534.170776 93 86 128
534.940430 431.233032 531.663452 85 80 119
396.065826 561.107971 525.190552 103 104 156
400.293762 559.821655 526.507874 104 99 149
406.956360 557.690857 527.977844 130 126 170
524.757874 432.593842 528.493530 94 89 131
529.522583 431.697083 527.980530 95 89 133
535.017090 430.515442 527.524658 93 88 134
395.842102 562.288269 520.143921 116 114 167
401.116943 560.742676 520.766235 116 114 162
406.618378 558.875732 521.306274 119 120 174
524.738220 432.621704 520.116333 104 102 152
529.472168 431.625793 520.725403 104 101 152
535.048096 430.489349 520.967590 101 96 147
395.693878 563.492676 513.435547 98 92 143
401.963531 562.066833 513.933472 90 84 127
406.234222 560.282776 516.434692 91 86 129
524.458435 433.585541 513.272705 123 120 175
530.052002 432.184570 513.632935 129 129 186
535.027527 430.982269 514.191101 126 127 183
391.110168 565.932373 503.483307 100 96 148
395.453369 564.560913 506.433105 102 99 152
401.677673 563.303040 506.814392 93 88 137
524.309631 434.742004 506.250824 159 158 206
530.578552 433.232941 506.737854 126 127 179
534.878845 431.666290 509.415771 108 108 162
390.934387 566.623779 499.283142 88 84 126
395.672882 565.215393 499.808197 87 83 126
401.778839 563.412659 499.550842 90 84 128
519.747620 437.823608 498.121582 157 158 203
525.187317 436.529877 499.641418 121 125 178
530.157898 435.077972 500.838135 98 99 148
390.821564 566.684814 494.232361 79 73 109
395.351959 564.839966 493.412292 85 78 118
402.102875 561.936218 493.045685 89 84 128
406.560974 558.891724 490.830811 83 75 117
509.098846 448.793823 489.564026 129 121 146
514.621033 445.457550 490.335571 125 131 174
519.744934 441.590637 492.899750 89 90 137
525.768494 438.822205 495.338531 81 81 126
399.818146 558.247131 488.767426 103 91 127
405.937653 554.944031 487.520386 118 104 146
410.144348 552.330444 484.597931 127 113 156
504.765930 452.927063 484.576324 90 92 131
510.325928 451.715118 486.321442 113 112 155
515.067688 449.651825 488.328918 90 95 149
410.339539 551.316345 478.802734 93 86 124
505.059479 452.407471 480.777710 79 74 111
510.031891 451.678894 478.617981 94 92 138
515.075439 451.247437 476.917236 105 105 159
406.569641 552.216614 470.703735 83 78 115
410.102783 553.060364 472.437225 88 83 119
510.006714 450.649902 471.749268 99 98 148
515.164917 450.430145 471.060425 105 106 153
407.161163 553.690796 464.115509 81 75 115
410.984711 554.579529 464.906982 80 74 111
509.899658 449.946930 464.867523 92 91 137
515.186218 449.588501 464.653290 98 97 144
407.389923 554.425964 457.547089 90 86 130
411.040466 554.819824 457.222656 93 90 136
509.621124 450.268646 457.815704 98 97 147
515.236023 449.601044 457.994171 89 86 131
406.077850 554.860535 450.458984 93 90 137
411.088593 554.763245 451.128357 98 97 149
509.602570 450.899017 450.730438 106 105 161
515.174805 450.292358 451.221191 94 92 139
406.080872 555.826294 443.764374 90 90 139
411.133789 555.312073 445.949463 97 98 152
509.925446 451.357574 443.673950 101 100 152
515.129456 451.101288 444.664948 95 92 140
406.344025 556.327820 437.103271 77 73 119
505.082458 452.014343 436.004089 100 100 157
510.115723 451.859955 436.699432 98 96 149
514.935364 451.619934 439.264435 90 86 132
407.350281 554.356384 430.309753 83 79 128
408.294861 551.589478 427.287598 81 78 128
505.049530 452.707581 429.152435 94 94 146
510.084686 452.546387 429.934601 92 90 138
411.872131 550.345947 423.124786 74 72 121
412.227844 546.254272 420.534454 121 122 179
505.145782 454.490356 422.422241 91 88 138
510.159515 454.029327 423.375763 87 85 132
413.318298 550.172058 415.817657 100 106 169
412.654022 546.398315 417.099945 108 117 185
499.311279 458.969086 414.247528 113 117 163
505.463531 456.856140 417.068390 87 84 133
509.977234 455.803375 418.824158 82 78 126
408.462189 554.908264 406.985870 112 122 204
409.201050 550.915039 409.607147 102 111 188
